74.8147	-3.40909	-100.02
82.2961	8.25	-110.022
71.5619	10.6522	-95.6712
63.3047	74.0385	-84.6322
68.5801	83.5417	-91.6849
65.8369	83.4	-88.0175
60.9601	124.63	-81.4977
65.8369	137.8	-88.0175
63.3047	135.577	-84.6322
76.4766	106.905	-108.075
80.3004	196.25	-113.479
60.2344	-24.4231	-89.9502
62.6438	-22.2	-93.5482
60.2344	-18.2692	-89.9502
111.864	308.929	-167.05
101.745	-21	-160.523
69.3718	-10.6818	-109.447
69.3718	-3.40909	-109.447
127.182	87.0833	-200.653
56.5252	50.5556	-89.1792
54.5064	57.3214	-85.9942
58.6992	64.8077	-92.6092
70.7746	34.5238	-117.951
55.0469	68.3333	-91.7397
64.6203	83.6957	-107.694
78.2245	105.526	-130.367
61.9277	86.875	-103.207
57.1641	147.885	-95.2682
80.3529	218.056	-141.45
72.3176	200.25	-127.305
65.7433	189.318	-115.732
72.3176	212.25	-127.305
48.4978	-10.8621	-90.1807
50.2299	-5.53571	-93.4014
124.229	-72.2727	-244.034
91.1015	-10.3333	-178.958
195.218	-10.7143	-383.482
48.8044	37.3214	-95.8704
47.1215	69.1379	-92.5646
57.6786	83.6957	-119.718
102.047	160.385	-211.808
53.0644	86.6	-110.14
47.3789	128.75	-98.3395
45.7451	143.621	-94.9485
51.4678	115.4	-112.906
107.225	307.083	-235.22
214.449	667.5	-470.44
98.9765	314.231	-217.126
41.5593	-23.8333	-96.3924
59.3705	236.429	-137.703
86.2047	-22.5	-211.493
100.572	-19.5833	-246.742
80.4577	11	-197.394
402.289	161.667	-986.969
44.6987	41.6667	-109.663
55.5691	42.1429	-144.288
53.0433	43.8636	-137.729
55.5691	49.7619	-144.288
1166.95	1125	-3030.04
194.492	307.5	-505.007
194.492	320.833	-505.007
233.39	401	-606.008
86.6952	252.692	-238.398
80.5027	268.929	-221.37
161.005	652.143	-442.739
161.005	663.571	-442.739
46.9599	206.875	-129.132
52.3605	-35.75	-161.872
34.907	-21.1667	-107.915
43.6337	-23.125	-134.893
41.8884	-19	-129.498
49.8671	-18.8095	-154.164
43.6337	-13.125	-134.893
43.6337	-9.79167	-134.893
69.8139	-10.3333	-215.829
149.601	12.1429	-462.491
174.535	40.8333	-539.573
209.442	129	-647.488
349.07	241.667	-1079.15
40.2918	48.2	-132.263
33.5765	42.8333	-110.219
45.7861	65.6818	-150.299
38.7421	58.6538	-127.176
37.3072	59.4444	-122.466
45.7861	76.5909	-150.299
38.7421	67.8846	-127.176
40.2918	73.8	-132.263
43.7954	83.6957	-143.764
40.2918	80.2	-132.263
77.4842	160.385	-254.352
167.882	467.5	-551.096
143.899	412.143	-472.368
43.9719	152.955	-153.441
69.0986	246.071	-241.122
64.492	235	-225.047
40.3075	150.208	-140.654
38.6952	147.4	-135.028
37.207	144.808	-129.835
42.06	167.174	-146.77
40.3075	163.542	-140.654
43.9719	182.045	-153.441
37.207	157.115	-129.835
42.06	181.087	-146.77
46.0657	202.143	-160.748
46.7133	-33.4211	-184.946
42.2644	-26.4286	-167.332
36.9813	-19.7917	-146.416
35.5021	-15.8	-140.559
73.9627	40.4167	-292.831
59.1702	69.6667	-234.265
36.8538	69.7826	-155.787
44.6125	88.6842	-188.585
47.091	178.056	-199.062
32.6015	144.808	-137.812
40.3862	192.25	-182.612
38.463	213.571	-173.916
33.383	-17.1739	-161.799
38.3103	-16.5789	-199.5
34.6617	-11.1905	-180.5
30.329	46.875	-157.938
31.6476	59.3478	-164.805
27.996	64.8077	-145.789
31.2719	83.8636	-175.438
31.2719	87.5	-175.438
27.5192	80.2	-154.386
29.9122	142.826	-167.811
32.761	167.857	-183.792
28.6659	160.208	-160.818
216.022	215	-1309.59
648.067	725	-3928.78
27.0028	170.208	-163.699
27.0028	176.875	-163.699
28.1768	191.522	-170.816
24.3261	-6.2	-159.916
23.6766	3.54167	-169.46
23.6766	6.875	-169.46
23.6766	16.875	-169.46
28.4119	40.25	-203.352
142.06	481.25	-1016.76
21.133	99.4	-165.447
22.0135	110.208	-172.341
22.9706	118.478	-179.834
22.9706	153.261	-179.834
18.6873	-46.4583	-178.102
13.1501	185.8	-179.274
-3.70471	76.0526	-272.273
-21.4597	652.143	-758.778
-10.7299	331.786	-379.389
-10.0145	315	-354.096
-6.53122	215.87	-230.932
-16.4319	46.0714	-389.265
-12.1077	42.3684	-286.827
-10.7984	131.4	-220.754
-9.99855	124.63	-204.402
-14.5746	-39.7917	-235.713
-17.9007	143.542	-241.474
-28.6412	256.333	-386.359
-24.2593	-18.8095	-282.555
-19.5941	141.731	-228.217
-78.4801	366.429	-857.54
-20.3467	100.926	-222.325
-39.285	187	-404.794
-20.3198	162.931	-209.376
-57.199	451.364	-558.277
-25.7347	37.1154	-238.853
-47.7931	137.5	-443.584
-54.5398	61.9231	-483.024
-32.5622	125.435	-276.019
-26.2949	-10.5	-213.919
-82.876	248.5	-648.671
-63.2335	-74.3333	-446.274
2843.35	3205	-126.433
178.913	171	-26.8645
168.269	187	-45.3001
168.269	197.667	-45.3001
165.608	315	-49.909
177.437	348.929	-53.4739
177.437	354.643	-53.4739
184.946	68.0769	-68.2232
171.735	68.9286	-63.3501
171.735	97.5	-63.3501
150.268	255.312	-55.4314
134.385	132.059	-64.3707
149.642	53.6667	-77.5624
140.29	55.3125	-72.7147
149.642	64.3333	-77.5624
149.642	69.6667	-77.5624
149.642	197.667	-77.5624
172.664	271.154	-89.495
172.664	338.846	-89.495
146.981	197.667	-82.1713
146.981	203	-82.1713
146.981	208.333	-82.1713
146.981	219	-82.1713
144.321	11	-86.7802
141.66	-42.3333	-91.3891
141.66	-31.6667	-91.3891
141.66	27	-91.3891
141.66	32.3333	-91.3891
151.778	40.3571	-97.9169
141.66	43	-91.3891
141.66	48.3333	-91.3891
141.66	53.6667	-91.3891
141.66	59	-91.3891
141.66	149.667	-91.3891
208.498	-71.5	-143.997
138.999	101.667	-95.998
148.927	114.643	-102.855
160.383	129.615	-110.767
138.999	192.333	-95.998
138.999	197.667	-95.998
148.927	217.5	-102.855
160.383	265	-110.767
2084.98	4405	-1439.97
511.266	141.25	-377.276
136.338	245.667	-100.607
146.076	348.929	-107.793
157.313	381.923	-116.085
143.225	-79.6429	-112.731
154.242	-36.5385	-121.403
154.242	-18.0769	-121.403
143.225	17.5	-112.731
286.45	492.143	-225.462
668.384	1175	-526.079
2005.15	3685	-1578.24
131.016	-21	-109.825
131.016	43	-109.825
140.374	57.5	-117.669
151.172	148.077	-126.721
81.8849	120.208	-68.6404
128.355	112.333	-114.434
128.355	117.667	-114.434
137.523	131.786	-122.607
128.355	181.667	-114.434
160.444	360.417	-143.042
62.1072	157.581	-55.3711
80.2218	206.875	-71.521
89.7813	-53.0952	-85.0303
104.745	213.611	-99.2021
125.694	261.667	-119.042
125.694	288.333	-119.042
110.906	259.118	-105.037
110.906	268.529	-105.037
123.033	-42.3333	-123.651
167.772	-50.4545	-168.616
263.642	-67.8571	-264.967
263.642	-56.4286	-264.967
123.033	-21	-123.651
141.961	-18.0769	-142.675
68.3516	29.8148	-68.6952
87.8807	42.1429	-88.3224
73.8198	38.6	-74.1908
70.9805	40.1923	-71.3373
164.144	-21.3636	-174.9
128.97	-11.0714	-137.422
128.97	-5.35714	-137.422
112.849	0.3125	-120.244
120.372	107	-128.26
120.372	112.333	-128.26
120.372	117.667	-128.26
82.0718	138.409	-87.4502
75.2325	133.542	-80.1627
60.885	171.207	-68.7254
78.4432	-50.6818	-93.735
66.3751	-30.5769	-79.3143
115.05	299	-137.478
115.05	309.667	-137.478
120.417	-33.9286	-152.236
112.389	-26.3333	-142.087
73.2973	48.913	-92.6654
73.2973	59.3478	-92.6654
102.87	25.3125	-137.527
137.16	127.083	-183.37
109.728	107	-146.696
63.3047	64.8077	-84.6322
68.5801	73.5417	-91.6849
71.5619	132.391	-95.6712
63.3047	135.577	-84.6322
229.43	457.857	-324.225
114.715	257.5	-162.112
107.067	245.667	-151.305
114.715	268.929	-162.112
107.067	256.333	-151.305
107.067	261.667	-151.305
65.2539	-26.4583	-97.446
68.0911	-20.6522	-101.683
101.745	-26.3333	-160.523
101.745	-21	-160.523
109.013	-16.7857	-171.988
89.7753	-9.11765	-141.638
101.745	-5	-160.523
69.3718	47.5	-109.447
69.3718	72.9545	-109.447
61.0472	67.4	-96.3135
305.236	705	-481.568
87.4274	14.4118	-145.704
106.162	108.929	-176.927
99.0844	155	-165.131
47.9441	95.6452	-79.9023
57.1641	147.885	-95.2682
206.622	560.714	-363.729
85.0795	273.235	-149.771
54.0937	-5.96154	-100.586
1406.44	4165	-2615.24
93.7625	309.667	-174.349
195.218	-33.5714	-383.482
80.3837	19.1176	-157.904
54.6609	80.2	-107.375
102.047	0.384615	-211.808
88.4406	37.6667	-183.567
88.4406	43	-183.567
265.322	321	-550.701
132.661	200.5	-275.351
69.8215	139.211	-144.921
51.0234	160.192	-105.904
85.7796	187	-188.176
85.7796	203	-188.176
183.814	537.857	-403.234
183.814	549.286	-403.234
98.9765	338.846	-217.126
71.483	266.944	-156.813
42.9924	5.68966	-99.7163
67.0481	-57.5	-164.495
70.9921	-56.1765	-174.171
80.4577	-58.3333	-197.394
60.3433	-39.75	-148.045
80.4577	-47.6667	-197.394
40.2289	-21.1667	-98.6969
63.5193	33.9474	-155.837
57.4698	34.5238	-140.996
44.6987	56.4815	-109.663
44.6987	86.1111	-109.663
1166.95	885	-3030.04
61.4185	59.2105	-159.476
58.3476	60.25	-151.502
55.5691	61.1905	-144.288
53.0433	62.0455	-137.729
48.623	60.2083	-126.252
46.6781	61	-121.202
48.623	66.875	-126.252
166.707	240.714	-432.863
77.7968	155	-202.003
1166.95	2725	-3030.04
55.5691	171.667	-144.288
41.6769	160.179	-108.216
86.6952	234.231	-238.398
56.3519	168.25	-154.959
53.6685	164.048	-147.58
45.0815	141	-123.967
51.229	163.864	-140.872
51.229	167.5	-140.872
80.5027	268.929	-221.37
43.3476	147.885	-119.199
80.5027	320.357	-221.37
80.5546	-73.4615	-249.034
69.8139	-58.3333	-215.829
74.8007	-56.7857	-231.246
349.07	188.333	-1079.15
69.8139	64.3333	-215.829
37.4003	94.4643	-115.623
62.9559	75.3125	-206.661
59.2526	75.5882	-194.504
67.153	91	-220.438
1007.29	2725	-3306.57
335.765	961.667	-1102.19
47.9664	190.714	-157.456
69.0986	240.357	-241.122
64.492	229.667	-225.047
50.9148	193.947	-177.669
53.7434	218.056	-187.539
46.0657	194.524	-160.748
53.7434	231.389	-187.539
96.7381	440.5	-337.571
132.495	-147.857	-492.12
31.9816	27.7586	-118.788
59.1702	-42.3333	-234.265
49.3085	-30.8333	-195.221
44.3776	-23.75	-175.699
49.3085	-17.5	-195.221
44.3776	-11.75	-175.699
46.7133	-3.94737	-184.946
49.3085	9.16667	-195.221
80.6866	36.8182	-319.452
80.6866	73.1818	-319.452
68.2733	80.3846	-270.306
46.7133	67.6316	-184.946
49.3085	75.8333	-195.221
30.6053	102.241	-121.172
56.5092	75	-238.874
56.5092	101.667	-238.874
49.8611	94.4118	-210.771
47.091	93.6111	-199.062
65.2029	228.077	-275.624
56.5092	213.667	-238.874
49.8611	202.647	-210.771
56.5092	235	-238.874
27.8525	-35.6897	-125.939
403.862	522.5	-1826.12
53.8483	155	-243.483
53.8483	171	-243.483
42.5118	193.947	-192.223
47.5132	221.471	-214.838
42.5118	206.579	-192.223
44.8735	222.5	-202.902
42.5118	215	-192.223
44.8735	244.722	-202.902
54.8435	-39.6429	-265.812
33.383	48.913	-161.799
255.937	1148.33	-1240.46
36.3948	-15.75	-189.525
38.3103	-8.15789	-199.5
38.3103	4.47368	-199.5
51.9925	63.2143	-270.751
51.9925	68.9286	-270.751
34.3991	108.25	-192.982
34.3991	112.25	-192.982
40.4695	146.176	-227.038
38.2212	142.5	-214.425
42.9988	165.312	-241.228
45.8654	181.667	-257.309
49.1415	228.929	-275.689
45.8654	219	-257.309
45.8654	224.333	-257.309
43.4395	-45.3571	-285.565
58.7027	116.111	-459.575
21.5043	67.6316	-228.609
10.4505	144.25	-234.462
11.6117	200.278	-260.514
12.2947	221.471	-275.838
8.61211	-53	-321.834
6.37624	68.9286	-349.76
5.95116	75	-326.443
5.95116	80.3333	-326.443
3.29021	149.667	-331.052
3.29021	155	-331.052
3.29021	160.333	-331.052
2.46766	140.25	-248.289
0.629263	288.333	-335.661
0.726073	338.846	-387.301
0.629263	299	-335.661
-5.86579	27.0833	-431.098
-4.69264	32.3333	-344.879
-7.35359	171	-349.487
-7.5109	240.25	-265.572
-7.15324	236.429	-252.926
-15.3364	133.667	-363.314
-17.9974	224.333	-367.923
-17.9974	229.667	-367.923
-19.4327	-35.2778	-314.284
-25.9802	133.667	-381.75
-64.9506	347.5	-954.374
-55.6719	309.286	-818.035
-14.9886	86.3462	-220.24
-16.9436	101.087	-248.967
-30.687	166.071	-413.956
-39.0562	218.636	-526.853
-35.8015	213.75	-482.948
-33.538	326.071	-418.894
-36.1178	357.308	-451.116
-84.9077	40.8333	-988.941
-18.1945	14.4643	-211.916
-709.017	2405	-6279.31
-124.096	469.286	-936.55
-96.5194	373.889	-728.428
-164.736	227.5	-1127.21
-329.472	481.667	-2254.42
-329.472	508.333	-2254.42
-41.1333	131.4	-273.295
-79.1543	28.9286	-497.904
94.4207	154.464	-16.8607
86.7955	53.5	-18.0411
91.5697	14.4643	-21.7988
106.831	33.5417	-25.432
91.5697	37.3214	-21.7988
90.1441	97.3214	-24.2679
84.1345	93.5	-22.65
90.1441	108.75	-24.2679
94.008	-30.5769	-31.4526
71.8885	56.6176	-24.052
85.8676	20.1786	-31.6751
80.1431	69.5	-29.5634
85.8676	97.3214	-31.6751
80.1431	125.5	-29.5634
92.4728	157.115	-34.1116
84.4421	94.4643	-34.1441
90.9377	104.808	-36.7706
84.4421	100.179	-34.1441
84.4421	103.036	-34.1441
84.4421	160.179	-34.1441
77.4822	160.167	-34.1723
83.0166	174.464	-36.6132
87.8673	-39.8077	-42.0885
87.8673	-36.7308	-42.0885
76.1517	58.8333	-36.4767
81.5911	77.3214	-39.0822
374.106	0.833333	-193.906
93.5265	50.2083	-48.4765
80.1656	80.1786	-41.5513
80.1656	83.0357	-41.5513
74.8212	80.1667	-38.7812
80.1656	88.75	-41.5513
86.3322	98.6538	-44.7475
80.1656	94.4643	-41.5513
80.1656	97.3214	-41.5513
80.1656	140.179	-41.5513
91.8634	140.208	-51.357
78.7401	123.036	-44.0203
78.7401	125.893	-44.0203
78.7401	168.75	-44.0203
83.2618	-33.6538	-50.0655
83.2618	-30.5769	-50.0655
360.801	480.833	-216.95
360.801	494.167	-216.95
81.7267	-24.4231	-52.7245
81.7267	-21.3462	-52.7245
70.8298	18.8333	-45.6945
75.8891	23.0357	-48.9584
88.5372	33.5417	-57.1182
81.7267	46.3462	-52.7245
208.498	-55.5	-143.997
69.4993	45.5	-47.999
69.4993	48.1667	-47.999
80.1915	58.6538	-55.3834
80.1915	61.7308	-55.3834
104.249	96.25	-71.9985
69.4993	74.8333	-47.999
80.1915	101.731	-55.3834
69.4993	90.8333	-47.999
80.1915	144.808	-55.3834
86.8741	160.208	-59.9987
80.1915	160.192	-55.3834
69.4993	152.167	-47.999
54.8679	122.237	-37.8939
40.0958	90.8654	-27.6917
68.1688	93.5	-50.3034
78.6564	135.577	-58.0424
127.817	225.313	-94.3189
78.6564	141.731	-58.0424
68.1688	125.5	-50.3034
78.6564	175.577	-58.0424
68.1688	157.5	-50.3034
43.5902	14.0217	-34.3095
40.103	14.5	-31.5647
98.2618	-23.75	-82.3685
70.187	-11.25	-58.8346
65.5079	0.166667	-54.9123
65.5079	5.5	-54.9123
140.374	57.5	-117.669
140.374	86.0714	-117.669
140.374	91.7857	-117.669
98.2618	68.25	-82.3685
89.3289	65.6818	-74.8805
81.8849	63.5417	-68.6404
75.586	64.8077	-63.3604
81.8849	90.2083	-68.6404
42.7225	55.7609	-35.8124
37.793	52.4038	-31.6802
39.3047	56.1	-32.9474
37.793	55.4808	-31.6802
64.1774	48.1667	-57.2168
64.1774	53.5	-57.2168
80.2218	70.2083	-71.521
68.7615	63.0357	-61.3037
68.7615	65.8929	-61.3037
68.7615	68.75	-61.3037
64.1774	114.833	-57.2168
64.1774	117.5	-57.2168
64.1774	122.833	-57.2168
37.0254	90.8654	-33.0097
44.8907	-26.5476	-42.5152
67.336	128.75	-63.7728
62.8469	141.5	-59.5212
48.5656	21.1842	-48.8098
43.9403	24.881	-44.1612
60.186	8.16667	-64.1301
60.186	48.1667	-64.1301
42.99	76.3095	-45.8072
58.8555	72.1667	-66.4346
58.8555	74.8333	-66.4346
58.8555	120.167	-66.4346
33.1875	-15.2885	-39.6571
431.438	141.25	-515.543
287.625	107.5	-343.695
140.486	-92.9167	-177.609
120.417	-51.0714	-152.236
64.8399	-24.4231	-81.9733
56.1946	-15.8333	-71.0435
33.7167	27.3	-42.6261
76.629	123.864	-96.8775
54.8641	-2.5	-73.3479
58.783	0.178571	-78.5871
54.8641	32.1667	-73.3479
68.5801	56.875	-91.6849
63.3047	55.5769	-84.6322
63.3047	58.6538	-84.6322
54.8641	56.1667	-73.3479
58.783	63.0357	-78.5871
34.2901	53.4375	-45.8425
43.3138	92.7632	-57.9063
57.3575	-25.5357	-81.0561
61.7696	80.1923	-87.2912
57.3575	77.3214	-81.0561
803.004	1122.5	-1134.79
73.0004	152.955	-103.162
57.3575	148.75	-81.0561
53.5336	144.167	-75.6524
34.0455	-10.3261	-50.8414
55.9319	151.607	-83.5252
60.2344	166.346	-89.9502
50.8727	-5.16667	-80.2613
50.8727	0.166667	-80.2613
34.6859	5.56818	-54.7236
44.8877	21.3235	-70.8188
38.1545	28.125	-60.196
31.7954	35.1042	-50.1633
67.5575	-3.40909	-112.59
53.0809	8.75	-88.4633
57.1641	12.5	-95.2682
49.5422	13.5	-82.5657
106.162	120.357	-176.927
61.9277	86.875	-103.207
49.5422	72.1667	-82.5657
48.2117	21.5	-84.8702
48.2117	32.1667	-84.8702
51.6554	60.1786	-90.9323
51.6554	63.0357	-90.9323
55.6289	92.5	-97.9271
51.6554	88.75	-90.9323
48.2117	109.5	-84.8702
35.1609	-3.875	-65.381
54.0937	135.577	-100.586
46.8812	128.167	-87.1746
58.6016	193.542	-108.968
46.8812	162.833	-87.1746
45.5508	-23.8333	-89.4791
45.5508	-21.1667	-89.4791
97.6088	11.7857	-191.741
45.5508	10.8333	-89.4791
45.5508	13.5	-89.4791
29.707	43.587	-58.3559
39.0179	-6.91176	-80.9855
44.2203	26.8333	-91.7835
44.2203	29.5	-91.7835
30.1502	21.9318	-62.5797
36.8502	29.0278	-76.4863
44.2203	82.8333	-91.7835
41.4565	80.1562	-86.0471
25.5117	80.0962	-52.952
42.8898	74.8333	-94.088
42.8898	98.8333	-94.088
35.7415	84.5833	-78.4067
32.1674	78.125	-70.566
40.2092	100.156	-88.2075
42.8898	109.5	-94.088
32.1674	84.125	-70.566
30.6356	82.0238	-67.2057
91.9068	251.786	-201.617
91.9068	280.357	-201.617
91.9068	297.5	-201.617
32.1674	118.125	-70.566
27.1039	3.58696	-62.8646
41.5593	162.833	-96.3924
44.5279	177.321	-103.278
35.4961	-30.4412	-87.0855
35.4961	-28.0882	-87.0855
43.1024	-31.25	-105.747
40.2289	-26.5	-98.6969
31.7596	-18.8158	-77.9186
27.4288	-14.4318	-67.2933
25.143	-11.5625	-61.6856
40.2289	-15.8333	-98.6969
40.2289	-10.5	-98.6969
40.2289	-7.83333	-98.6969
40.2289	-2.5	-98.6969
40.2289	5.5	-98.6969
603.433	282.5	-1480.45
603.433	322.5	-1480.45
27.4288	52.8409	-67.2933
41.6769	31.6071	-108.216
38.8984	32.1667	-101.001
38.8984	34.8333	-101.001
97.246	187.083	-252.503
38.8984	80.1667	-101.001
34.3221	103.676	-89.1188
37.5679	101.5	-103.306
37.5679	104.167	-103.306
40.2513	114.464	-110.685
37.5679	112.167	-103.306
37.5679	122.833	-103.306
37.5679	146.833	-103.306
187.84	747.5	-516.529
187.84	760.833	-516.529
80.5027	331.786	-221.37
80.5027	337.5	-221.37
112.704	480.5	-309.917
34.907	-31.8333	-107.915
37.4003	-31.25	-115.623
40.2773	-30.5769	-124.517
34.907	-21.1667	-107.915
34.907	-13.1667	-107.915
34.907	-7.83333	-107.915
34.907	-5.16667	-107.915
104.721	48.5	-323.744
130.901	90.625	-404.68
104.721	80.5	-323.744
34.907	32.1667	-107.915
18.7002	47.2321	-57.8114
35.9748	43.0357	-118.092
33.5765	42.8333	-110.219
33.5765	45.5	-110.219
33.5765	50.8333	-110.219
33.5765	53.5	-110.219
33.5765	66.8333	-110.219
41.9706	93.5417	-137.774
50.3647	120.25	-165.329
83.9412	220.417	-275.548
33.5765	104.167	-110.219
32.246	45.5	-112.524
34.5493	63.0357	-120.561
43.9719	87.5	-153.441
40.3075	83.5417	-140.654
69.0986	160.357	-241.122
37.207	129.423	-129.835
32.246	117.5	-112.524
35.6718	-36.7308	-132.494
30.9155	-29.1667	-114.828
30.9155	-26.5	-114.828
17.8359	15.4808	-66.2469
38.6444	176.875	-143.535
30.9155	162.833	-114.828
31.6983	-22.6786	-125.499
29.5851	-15.8333	-117.132
29.5851	-13.1667	-117.132
29.5851	-10.5	-117.132
29.5851	2.83333	-117.132
30.2728	11.6071	-127.968
24.9305	44.8529	-105.386
26.4887	50.1562	-111.972
28.2546	66.8333	-119.437
28.2546	69.5	-119.437
28.2546	72.1667	-119.437
28.2546	74.8333	-119.437
35.3183	110.208	-149.296
32.6015	104.808	-137.812
28.2546	98.8333	-119.437
32.6015	117.115	-137.812
28.2546	104.167	-119.437
26.9241	144.167	-121.741
28.8473	157.321	-130.437
28.8473	160.179	-130.437
28.8473	163.036	-130.437
28.8473	165.893	-130.437
31.0663	181.731	-140.471
26.9241	165.5	-121.741
25.5937	-37.1667	-124.046
27.4218	-36.9643	-132.906
25.5937	-31.8333	-124.046
27.4218	-31.25	-132.906
25.5937	-26.5	-124.046
27.4218	-25.5357	-132.906
25.5937	-10.5	-124.046
22.7467	12.6563	-118.453
24.2632	37.5	-126.35
24.2632	40.1667	-126.35
24.2632	61.5	-126.35
18.9413	24.1667	-135.568
18.9413	26.8333	-135.568
18.9413	29.5	-135.568
21.8553	37.1154	-156.425
17.6108	104.167	-137.873
13.6194	34.8333	-144.786
12.2889	82.8333	-147.09
13.1667	97.3214	-157.597
12.2889	96.1667	-147.09
12.2889	106.833	-147.09
12.2889	109.5	-147.09
12.2889	112.167	-147.09
12.2889	114.833	-147.09
12.2889	117.5	-147.09
13.1667	128.75	-157.597
9.62795	-37.1667	-151.699
9.62795	-13.1667	-151.699
8.29748	50.8333	-154.004
8.29748	58.8333	-154.004
9.57402	163.269	-177.697
7.46465	74.4643	-167.473
6.96701	74.8333	-156.308
7.46465	83.0357	-167.473
6.96701	93.5	-156.308
6.96701	101.5	-156.308
6.96701	117.5	-156.308
6.96701	120.167	-156.308
6.96701	125.5	-156.308
7.46465	137.321	-167.473
6.96701	130.833	-156.308
6.50369	-42.8846	-183.015
6.50369	157.115	-183.015
5.63653	138.833	-158.613
6.50369	163.269	-183.015
5.63653	144.167	-158.613
6.03914	157.321	-169.942
6.03914	165.893	-169.942
4.30606	-13.1667	-160.917
3.18812	0.178571	-174.88
3.18812	5.89286	-174.88
2.97558	13.5	-163.221
2.97558	16.1667	-163.221
2.97558	18.8333	-163.221
3.18812	23.0357	-174.88
1.76261	77.3214	-177.349
1.64511	74.8333	-165.526
1.64511	77.5	-165.526
1.64511	80.1667	-165.526
1.37092	69.0278	-137.938
1.64511	88.1667	-165.526
1.64511	90.8333	-165.526
0.314632	-31.8333	-167.83
0.363036	172.5	-193.65
0.337105	163.036	-179.818
0.314632	157.5	-167.83
0.363036	187.885	-193.65
-1.01584	2.83333	-170.135
-2.53961	413.75	-425.337
-2.9329	13.5417	-215.549
-2.9329	16.875	-215.549
-2.9329	20.2083	-215.549
-3.51948	48.25	-258.659
-1.85236	42.2368	-136.136
-2.70729	64.8077	-198.968
-2.70729	67.8846	-198.968
-2.9329	76.875	-215.549
-3.67679	90.8333	-174.744
-3.93942	105.893	-187.225
-5.00727	154.833	-177.048
-5.36493	168.75	-189.694
-6.79044	-2.67857	-192.164
-7.66822	64.1667	-181.657
-6.76607	58.9706	-160.286
-5.75116	52.125	-136.243
-12.7804	182.5	-302.762
-8.99869	128.167	-183.962
-8.99869	130.833	-183.962
-11.2484	166.875	-229.952
-8.99869	138.833	-183.962
-15.8995	-3.40909	-257.141
-7.28728	0.104167	-117.857
-68.6701	280.625	-750.348
-294.637	2122.5	-3035.96
-47.7931	11.7857	-443.584
-70.9017	296.5	-627.931
-59.0848	253.75	-523.276
-50.6441	223.214	-448.522
-138.127	160.833	-1081.12
-103.595	130.625	-810.839
-79.0419	-79.5833	-557.843
-79.0419	-6.25	-557.843
-35.3006	60.1786	-241.545
-164.736	307.5	-1127.21
-44.928	91.1364	-307.42
-35.3006	77.3214	-241.545
-70.6012	160.357	-483.089
-39.5512	160.192	-262.784
-79.1543	-39.6429	-497.904
-574.037	402.5	-3519.89
-191.346	160.833	-1173.3
480.544	-105.833	-9.54995
480.544	-92.5	-9.54995
480.544	-65.8333	-9.54995
480.544	-25.8333	-9.54995
236.946	-39.5833	-10.5361
473.892	307.5	-21.0722
473.892	320.833	-21.0722
473.892	334.167	-21.0722
473.892	427.5	-21.0722
473.892	534.167	-21.0722
473.892	707.5	-21.0722
233.62	-72.9167	-16.2972
467.239	307.5	-32.5944
233.62	167.083	-16.2972
467.239	734.167	-32.5944
467.239	747.5	-32.5944
467.239	760.833	-32.5944
467.239	814.167	-32.5944
467.239	827.5	-32.5944
460.587	-145.833	-44.1167
197.394	91.7857	-18.9072
230.293	273.75	-22.0583
230.293	340.417	-22.0583
276.352	416.5	-26.47
230.293	367.083	-22.0583
276.352	464.5	-26.47
276.352	472.5	-26.47
276.352	488.5	-26.47
453.935	134.167	-55.6389
453.935	174.167	-55.6389
226.967	287.083	-27.8195
340.451	600.625	-41.7292
223.641	13.75	-33.5806
268.369	80.5	-40.2967
268.369	96.5	-40.2967
268.369	112.5	-40.2967
268.369	120.5	-40.2967
335.462	160.625	-50.3709
447.282	440.833	-67.1612
447.282	494.167	-67.1612
268.369	304.5	-40.2967
447.282	520.833	-67.1612
447.282	560.833	-67.1612
447.282	574.167	-67.1612
447.282	747.5	-67.1612
264.378	-87.5	-47.2101
220.315	-46.25	-39.3417
1321.89	882.5	-236.05
264.378	232.5	-47.2101
264.378	240.5	-47.2101
220.315	207.083	-39.3417
264.378	272.5	-47.2101
264.378	288.5	-47.2101
330.472	380.625	-59.0126
264.378	320.5	-47.2101
264.378	328.5	-47.2101
440.63	587.5	-78.6834
220.315	300.417	-39.3417
264.378	376.5	-47.2101
264.378	384.5	-47.2101
440.63	707.5	-78.6834
440.63	720.833	-78.6834
433.977	-172.5	-90.2057
260.386	-95.5	-54.1234
433.977	-145.833	-90.2057
433.977	-119.167	-90.2057
433.977	-65.8333	-90.2057
260.386	136.5	-54.1234
260.386	160.5	-54.1234
1301.93	1962.5	-270.617
320.494	-129.375	-76.296
320.494	-119.375	-76.296
256.395	-55.5	-61.0368
320.494	-49.375	-76.296
320.494	-29.375	-76.296
320.494	60.625	-76.296
427.325	120.833	-101.728
427.325	134.167	-101.728
640.988	221.25	-152.592
427.325	200.833	-101.728
320.494	160.625	-76.296
427.325	227.5	-101.728
320.494	180.625	-76.296
427.325	254.167	-101.728
427.325	307.5	-101.728
427.325	400.833	-101.728
427.325	414.167	-101.728
427.325	427.5	-101.728
427.325	440.833	-101.728
183.139	240.357	-43.5977
183.139	263.214	-43.5977
213.663	313.75	-50.864
252.404	-87.5	-67.9501
420.673	54.1667	-113.25
252.404	40.5	-67.9501
315.505	110.625	-84.9376
315.505	120.625	-84.9376
315.505	130.625	-84.9376
252.404	112.5	-67.9501
252.404	152.5	-67.9501
210.336	160.417	-56.6251
631.009	581.25	-169.875
631.009	601.25	-169.875
315.505	420.625	-84.9376
315.505	440.625	-84.9376
252.404	376.5	-67.9501
420.673	640.833	-113.25
315.505	490.625	-84.9376
420.673	667.5	-113.25
420.673	760.833	-113.25
1262.02	2322.5	-339.751
420.673	787.5	-113.25
1262.02	2442.5	-339.751
631.009	1241.25	-169.875
248.412	-55.5	-74.8635
414.02	374.167	-124.772
248.412	232.5	-74.8635
414.02	427.5	-124.772
248.412	264.5	-74.8635
414.02	494.167	-124.772
248.412	304.5	-74.8635
248.412	392.5	-74.8635
310.515	510.625	-93.5793
1242.06	2122.5	-374.317
414.02	800.833	-124.772
414.02	814.167	-124.772
414.02	827.5	-124.772
407.368	-185.833	-136.295
305.526	-129.375	-102.221
305.526	0.625	-102.221
407.368	14.1667	-136.295
407.368	27.5	-136.295
407.368	40.8333	-136.295
407.368	54.1667	-136.295
407.368	80.8333	-136.295
611.052	141.25	-204.442
407.368	120.833	-136.295
611.052	221.25	-204.442
203.684	153.75	-68.1473
244.421	464.5	-81.7768
244.421	488.5	-81.7768
203.684	413.75	-68.1473
171.735	-79.6429	-63.3501
240.429	-95.5	-88.6902
601.073	61.25	-221.725
1202.15	202.5	-443.451
601.073	121.25	-221.725
240.429	104.5	-88.6902
400.716	200.833	-147.817
400.716	214.167	-147.817
400.716	227.5	-147.817
300.537	350.625	-110.863
400.716	480.833	-147.817
400.716	494.167	-147.817
240.429	336.5	-88.6902
200.358	287.083	-73.9085
200.358	300.417	-73.9085
200.358	313.75	-73.9085
1202.15	1962.5	-443.451
1182.19	122.5	-478.018
236.438	160.5	-95.6035
236.438	168.5	-95.6035
295.547	250.625	-119.504
236.438	312.5	-95.6035
295.547	400.625	-119.504
295.547	410.625	-119.504
295.547	420.625	-119.504
394.063	574.167	-159.339
394.063	614.167	-159.339
295.547	500.625	-119.504
236.438	408.5	-95.6035
394.063	747.5	-159.339
295.547	570.625	-119.504
1162.23	-277.5	-512.584
166.033	-11.0714	-73.2263
387.411	600.833	-170.861
387.411	614.167	-170.861
232.446	400.5	-102.517
285.569	-89.375	-136.788
380.758	-105.833	-182.384
190.379	-6.25	-91.1918
228.455	16.5	-109.43
380.758	120.833	-182.384
1142.28	962.5	-547.151
380.758	667.5	-182.384
374.106	214.167	-193.906
280.58	170.625	-145.429
374.106	280.833	-193.906
224.464	192.5	-116.344
280.58	270.625	-145.429
224.464	368.5	-116.344
367.454	120.833	-205.428
367.454	574.167	-205.428
551.181	921.25	-308.142
1102.36	1882.5	-616.285
220.472	400.5	-123.257
180.401	-26.25	-108.475
216.481	352.5	-130.17
216.481	376.5	-130.17
180.401	353.75	-108.475
216.481	432.5	-130.17
354.149	-92.5	-228.473
531.223	-98.75	-342.709
531.223	-78.75	-342.709
354.149	-39.1667	-228.473
212.489	-15.5	-137.084
212.489	-7.5	-137.084
265.612	50.625	-171.355
265.612	60.625	-171.355
347.497	254.167	-239.995
208.498	160.5	-143.997
208.498	192.5	-143.997
208.498	200.5	-143.997
204.507	400.5	-150.91
250.644	-79.375	-197.28
167.096	147.083	-131.52
167.096	287.083	-131.52
167.096	347.083	-131.52
163.77	-72.9167	-137.281
196.524	-23.5	-164.737
245.655	-9.375	-205.921
245.655	100.625	-205.921
196.524	464.5	-164.737
160.444	-72.9167	-143.042
160.444	-39.5833	-143.042
160.444	-12.9167	-143.042
160.444	20.4167	-143.042
160.444	47.0833	-143.042
160.444	53.75	-143.042
192.532	72.5	-171.65
160.444	80.4167	-143.042
320.887	334.167	-286.084
320.887	347.5	-286.084
240.665	470.625	-214.563
160.444	413.75	-143.042
157.117	53.75	-148.803
188.541	72.5	-178.564
188.541	96.5	-178.564
188.541	200.5	-178.564
157.117	193.75	-148.803
157.117	207.083	-148.803
188.541	288.5	-178.564
157.117	247.083	-148.803
157.117	260.417	-148.803
314.235	574.167	-297.606
235.676	560.625	-223.205
184.549	304.5	-185.477
153.791	293.75	-154.564
153.791	313.75	-154.564
153.791	320.417	-154.564
184.549	456.5	-185.477
184.549	464.5	-185.477
184.549	480.5	-185.477
184.549	488.5	-185.477
184.549	496.5	-185.477
150.465	-72.9167	-160.325
451.395	1201.25	-480.976
176.567	-39.5	-199.304
126.119	34.6429	-142.36
176.567	56.5	-199.304
220.708	80.625	-249.13
172.575	48.5	-206.217
123.268	114.643	-147.298
123.268	148.929	-147.298
215.719	280.625	-257.771
280.973	-105.833	-355.217
842.919	162.5	-1065.65
140.486	267.083	-177.609
117.566	86.0714	-157.174
137.16	167.083	-183.37
137.16	280.417	-183.37
200.751	-89.375	-283.696
267.668	534.167	-378.262
160.601	368.5	-226.957
267.668	640.833	-378.262
156.609	200.5	-233.87
261.016	347.5	-389.784
156.609	472.5	-233.87
127.182	40.4167	-200.653
127.182	313.75	-200.653
127.182	380.417	-200.653
127.182	387.083	-200.653
152.618	488.5	-240.784
127.182	413.75	-200.653
148.627	-111.5	-247.697
148.627	-103.5	-247.697
148.627	-87.5	-247.697
247.711	267.5	-412.829
743.133	882.5	-1238.49
106.162	326.071	-176.927
120.529	73.75	-212.175
120.529	80.4167	-212.175
144.635	112.5	-254.611
144.635	120.5	-254.611
120.529	113.75	-212.175
120.529	120.417	-212.175
103.311	108.929	-181.865
144.635	168.5	-254.611
144.635	176.5	-254.611
144.635	328.5	-254.611
361.588	861.25	-636.526
241.059	587.5	-424.351
100.46	291.786	-186.803
170.815	60.625	-335.547
227.754	214.167	-447.395
110.551	13.75	-229.459
132.661	256.5	-275.351
132.661	328.5	-275.351
110.551	293.75	-229.459
107.225	247.083	-235.22
128.669	328.5	-282.264
128.669	352.5	-282.264
128.669	480.5	-282.264
155.848	70.625	-361.472
103.898	260.417	-240.981
201.144	-105.833	-493.484
120.687	0.5	-296.091
201.144	80.8333	-493.484
100.572	93.75	-246.742
100.572	353.75	-246.742
86.2047	308.929	-211.493
100.572	400.417	-246.742
97.246	-6.25	-252.503
97.246	13.75	-252.503
97.246	47.0833	-252.503
145.869	220.625	-378.755
116.695	240.5	-303.004
116.695	296.5	-303.004
97.246	253.75	-252.503
97.246	260.417	-252.503
194.492	534.167	-505.007
563.519	202.5	-1549.59
112.704	112.5	-309.917
112.704	120.5	-309.917
112.704	216.5	-309.917
112.704	232.5	-309.917
93.9198	280.417	-258.264
112.704	360.5	-309.917
112.704	368.5	-309.917
112.704	376.5	-309.917
80.5027	303.214	-221.37
108.712	-103.5	-316.831
90.5936	167.083	-264.026
77.6517	148.929	-226.308
54.3562	112.25	-158.415
90.5936	200.417	-264.026
108.712	248.5	-316.831
181.187	547.5	-528.051
90.5936	287.083	-264.026
181.187	600.833	-528.051
181.187	614.167	-528.051
130.901	-99.375	-404.68
87.2674	-59.5833	-269.787
104.721	-63.5	-323.744
104.721	-15.5	-323.744
104.721	0.5	-323.744
130.901	10.625	-404.68
174.535	40.8333	-539.573
104.721	88.5	-323.744
104.721	144.5	-323.744
523.605	2042.5	-1618.72
503.647	-557.5	-1653.29
125.912	-59.375	-413.322
100.729	24.5	-330.657
167.882	80.8333	-551.096
83.9412	47.0833	-275.548
167.882	107.5	-551.096
167.882	134.167	-551.096
83.9412	100.417	-275.548
100.729	128.5	-330.657
100.729	136.5	-330.657
83.9412	127.083	-275.548
83.9412	133.75	-275.548
100.729	320.5	-330.657
96.7381	168.5	-337.571
80.6151	173.75	-281.309
96.7381	216.5	-337.571
80.6151	193.75	-281.309
80.6151	200.417	-281.309
161.23	414.167	-562.618
80.6151	213.75	-281.309
96.7381	264.5	-337.571
96.7381	336.5	-337.571
96.7381	344.5	-337.571
80.6151	293.75	-281.309
96.7381	368.5	-337.571
80.6151	313.75	-281.309
161.23	640.833	-562.618
96.7381	392.5	-337.571
161.23	667.5	-562.618
96.7381	472.5	-337.571
115.933	-109.375	-430.605
92.7466	-39.5	-344.484
154.578	574.167	-574.14
92.7466	384.5	-344.484
92.7466	408.5	-344.484
147.925	0.833333	-585.662
147.925	14.1667	-585.662
110.944	20.625	-439.247
88.7552	24.5	-351.397
63.3966	23.2143	-250.998
63.3966	211.786	-250.998
84.7638	8.5	-358.311
84.7638	216.5	-358.311
84.7638	224.5	-358.311
84.7638	232.5	-358.311
105.955	300.625	-447.888
84.7638	248.5	-358.311
84.7638	288.5	-358.311
84.7638	296.5	-358.311
84.7638	304.5	-358.311
141.273	520.833	-597.185
141.273	547.5	-597.185
141.273	560.833	-597.185
141.273	574.167	-597.185
84.7638	360.5	-358.311
141.273	614.167	-597.185
70.6365	313.75	-298.592
84.7638	384.5	-358.311
84.7638	400.5	-358.311
57.6946	-28.2143	-260.874
80.7724	160.5	-365.224
67.3103	160.417	-304.353
80.7724	368.5	-365.224
67.3103	313.75	-304.353
80.7724	384.5	-365.224
134.621	654.167	-608.707
67.3103	333.75	-304.353
80.7724	416.5	-365.224
383.905	202.5	-1860.69
54.8435	131.786	-265.812
72.7895	-15.5	-379.051
121.316	0.833333	-631.751
60.6579	7.08333	-315.876
121.316	27.5	-631.751
57.3318	160.417	-321.637
57.3318	167.083	-321.637
68.7981	264.5	-385.964
68.7981	288.5	-385.964
68.7981	440.5	-385.964
54.0056	333.75	-327.398
46.2905	291.786	-280.627
54.0056	347.083	-327.398
54.0056	353.75	-327.398
54.0056	360.417	-327.398
54.0056	367.083	-327.398
64.8067	480.5	-392.878
81.0084	610.625	-491.097
43.4395	-51.0714	-285.565
43.4395	11.7857	-285.565
94.7064	120.833	-677.84
71.0298	100.625	-508.38
56.8238	88.5	-406.704
56.8238	96.5	-406.704
52.8324	288.5	-413.618
52.8324	296.5	-413.618
52.8324	304.5	-413.618
52.8324	312.5	-413.618
44.027	267.083	-344.681
52.8324	328.5	-413.618
88.054	827.5	-689.363
81.4016	-185.833	-700.885
34.8864	314.643	-300.379
44.8496	-111.5	-427.444
44.8496	-103.5	-427.444
44.8496	-95.5	-427.444
56.062	-109.375	-534.305
74.7493	-132.5	-712.407
37.3746	-59.5833	-356.204
68.0969	160.833	-723.929
68.0969	187.5	-723.929
51.0727	150.625	-542.947
40.8581	128.5	-434.358
34.0484	113.75	-361.965
40.8581	144.5	-434.358
34.0484	140.417	-361.965
29.1844	126.071	-310.255
22.699	271.389	-241.31
26.3334	160.357	-315.194
184.334	1162.5	-2206.35
184.334	1562.5	-2206.35
61.4445	534.167	-735.452
36.8667	336.5	-441.271
30.7223	287.083	-367.726
46.0834	440.625	-551.589
30.7223	300.417	-367.726
26.3334	274.643	-315.194
27.3961	340.417	-373.487
32.8753	416.5	-448.184
23.4823	303.214	-320.132
27.3961	367.083	-373.487
36.1048	-79.375	-568.872
36.1048	-69.375	-568.872
28.8839	-47.5	-455.098
12.4462	-35.75	-231.006
124.462	82.5	-2310.06
20.7437	53.75	-385.009
17.7803	57.5	-330.008
17.7803	63.2143	-330.008
17.7803	68.9286	-330.008
24.8924	136.5	-462.011
41.4874	254.167	-770.018
41.4874	267.5	-770.018
41.4874	280.833	-770.018
17.4175	107.083	-390.77
14.9293	108.929	-334.946
17.4175	147.083	-390.77
17.4175	300.417	-390.77
34.835	627.5	-781.541
34.835	640.833	-781.541
17.4175	327.083	-390.77
12.0783	354.643	-339.884
9.22726	-79.6429	-344.822
9.22726	-73.9286	-344.822
16.1477	-49.375	-603.439
16.1477	-39.375	-603.439
12.9182	-23.5	-482.751
12.9182	-15.5	-482.751
11.1584	210.625	-612.081
8.92674	176.5	-489.664
8.92674	184.5	-489.664
8.92674	192.5	-489.664
8.92674	208.5	-489.664
7.43895	380.417	-408.054
8.22553	280.833	-827.63
3.52523	126.071	-354.698
3.08457	125.312	-310.361
4.93532	384.5	-496.578
4.93532	408.5	-496.578
0.674211	303.214	-359.637
-2.53961	47.0833	-425.337
-2.53961	53.75	-425.337
-2.17681	228.929	-364.575
-5.86579	220.417	-431.098
-8.79869	340.625	-646.647
-5.86579	233.75	-431.098
-7.87884	343.214	-374.451
-9.19198	407.083	-436.859
-31.6887	-12.5	-896.763
-15.8444	7.08333	-448.382
-15.8444	13.75	-448.382
-15.8444	20.4167	-448.382
-15.8444	40.4167	-448.382
-16.4319	114.643	-389.265
-16.4319	120.357	-389.265
-16.4319	126.071	-389.265
-16.4319	131.786	-389.265
-16.4319	137.5	-389.265
-16.4319	143.214	-389.265
-16.4319	148.929	-389.265
-16.4319	154.643	-389.265
-16.4319	166.071	-389.265
-19.1705	200.417	-454.143
-19.1705	207.083	-454.143
-19.1705	213.75	-454.143
-19.1705	233.75	-454.143
-7.66822	114.833	-181.657
-134.98	1922.5	-2759.42
-44.9935	654.167	-919.808
-22.4967	333.75	-459.904
-19.2829	291.786	-394.203
-19.2829	297.5	-394.203
-19.2829	303.214	-394.203
-15.4937	-55.75	-279.399
-24.9849	-5.35714	-404.079
-24.9849	17.5	-404.079
-15.8995	58.4091	-257.141
-27.836	223.214	-409.018
-194.852	1682.5	-2863.12
-39.1277	-12.9167	-488.709
-84.9077	14.1667	-988.941
-84.9077	294.167	-988.941
-36.389	131.786	-423.832
-274.68	1882.5	-3001.39
-55.7586	67.0833	-517.515
-47.7931	68.9286	-443.584
-50.6441	188.929	-448.522
-50.6441	200.357	-448.522
-124.822	814.167	-1058.07
-124.822	827.5	-1058.07
-131.474	-185.833	-1069.6
-43.8248	-57.5	-356.532
-56.3461	-68.2143	-458.399
-78.8846	-87.5	-641.758
-59.1972	51.7857	-463.337
-67.7502	-73.9286	-478.151
-79.0419	-12.9167	-557.843
-158.084	-12.5	-1115.69
-118.563	0.625	-836.764
-94.8503	8.5	-669.412
-494.209	402.5	-3381.62
-70.6012	108.929	-483.089
-70.6012	114.643	-483.089
-70.6012	131.786	-483.089
-82.3681	160.417	-563.604
-64.2707	200.312	-427.024
-73.4522	234.643	-488.027
-64.2707	215.312	-427.024
-73.4522	257.5	-488.027
-178.041	800.833	-1150.25
-76.3033	348.929	-492.965
-287.019	41.25	-1759.95
-191.346	40.8333	-1173.3
352.857	-58.75	651.649
705.713	42.5	1303.3
705.713	122.5	1303.3
705.713	162.5	1303.3
705.713	442.5	1303.3
705.713	802.5	1303.3
705.713	1002.5	1303.3
352.857	541.25	651.649
725.67	1202.5	1268.73
725.67	1282.5	1268.73
725.67	1322.5	1268.73
725.67	1362.5	1268.73
362.835	741.25	634.366
725.67	1522.5	1268.73
362.835	801.25	634.366
725.67	1842.5	1268.73
725.67	1962.5	1268.73
248.543	-119.167	411.388
372.814	981.25	617.083
745.628	2402.5	1234.17
372.814	1221.25	617.083
382.792	-258.75	599.799
765.585	-37.5	1199.6
785.542	42.5	1165.03
785.542	562.5	1165.03
785.542	602.5	1165.03
261.847	587.5	388.344
261.847	760.833	388.344
161.1	-55.5	226.093
268.5	160.833	376.822
805.499	1722.5	1130.46
805.499	1762.5	1130.46
805.499	2002.5	1130.46
275.152	54.1667	365.299
165.091	112.5	219.18
206.364	160.625	273.975
845.413	-197.5	1061.33
845.413	162.5	1061.33
281.804	374.167	353.777
281.804	440.833	353.777
281.804	454.167	353.777
865.37	1002.5	1026.76
288.457	707.5	342.255
288.457	760.833	342.255
216.343	600.625	256.691
288.457	827.5	342.255
295.109	-185.833	330.733
177.065	0.5	198.44
442.664	821.25	496.099
442.664	841.25	496.099
301.762	-12.5	319.21
301.762	67.5	319.21
301.762	94.1667	319.21
301.762	107.5	319.21
301.762	174.167	319.21
301.762	240.833	319.21
226.321	240.625	239.408
925.242	-357.5	923.064
925.242	-237.5	923.064
462.621	101.25	461.532
308.414	400.833	307.688
308.414	414.167	307.688
308.414	454.167	307.688
231.31	370.625	230.766
308.414	534.167	307.688
945.199	922.5	888.498
472.599	581.25	444.249
472.599	681.25	444.249
315.066	734.167	296.166
315.066	760.833	296.166
315.066	774.167	296.166
315.066	787.5	296.166
315.066	814.167	296.166
315.066	827.5	296.166
965.156	1722.5	853.931
482.578	1001.25	426.965
482.578	1061.25	426.965
482.578	1241.25	426.965
328.371	40.8333	273.121
328.371	67.5	273.121
328.371	80.8333	273.121
328.371	107.5	273.121
328.371	120.833	273.121
328.371	134.167	273.121
328.371	147.5	273.121
328.371	174.167	273.121
328.371	187.5	273.121
328.371	214.167	273.121
328.371	227.5	273.121
1005.07	-277.5	784.797
1005.07	-77.5	784.797
502.535	141.25	392.399
335.023	374.167	261.599
335.023	387.5	261.599
335.023	400.833	261.599
335.023	414.167	261.599
335.023	427.5	261.599
335.023	440.833	261.599
335.023	454.167	261.599
335.023	467.5	261.599
335.023	480.833	261.599
335.023	494.167	261.599
335.023	520.833	261.599
335.023	534.167	261.599
335.023	547.5	261.599
335.023	560.833	261.599
512.514	641.25	375.115
512.514	901.25	375.115
512.514	941.25	375.115
512.514	961.25	375.115
341.676	654.167	250.077
512.514	1101.25	375.115
341.676	747.5	250.077
341.676	760.833	250.077
341.676	774.167	250.077
341.676	787.5	250.077
512.514	1201.25	375.115
341.676	814.167	250.077
348.328	627.5	238.555
1044.98	1962.5	715.664
1044.98	2082.5	715.664
354.981	-65.8333	227.032
354.981	-52.5	227.032
532.471	-58.75	340.549
354.981	94.1667	227.032
354.981	107.5	227.032
354.981	120.833	227.032
354.981	160.833	227.032
354.981	254.167	227.032
1084.9	-77.5	646.53
1084.9	82.5	646.53
542.449	321.25	323.265
542.449	401.25	323.265
542.449	461.25	323.265
542.449	501.25	323.265
542.449	521.25	323.265
1084.9	1682.5	646.53
1104.86	962.5	611.964
1104.86	1002.5	611.964
552.428	521.25	305.982
1104.86	1122.5	611.964
1104.86	1162.5	611.964
1104.86	1602.5	611.964
552.428	841.25	305.982
1104.86	1722.5	611.964
552.428	881.25	305.982
552.428	901.25	305.982
552.428	921.25	305.982
552.428	941.25	305.982
552.428	1021.25	305.982
552.428	1041.25	305.982
552.428	1061.25	305.982
562.406	-238.75	288.698
562.406	1061.25	288.698
1124.81	2162.5	577.397
562.406	1101.25	288.698
1124.81	2242.5	577.397
562.406	1141.25	288.698
572.385	-78.75	271.415
572.385	-58.75	271.415
572.385	1.25	271.415
572.385	41.25	271.415
572.385	61.25	271.415
286.192	410.625	135.708
1164.73	242.5	508.263
1164.73	282.5	508.263
1164.73	322.5	508.263
1164.73	362.5	508.263
1184.68	1402.5	473.697
1184.68	2162.5	473.697
240.928	184.5	87.826
408.199	294.167	134.854
408.199	334.167	134.854
408.199	387.5	134.854
408.199	587.5	134.854
408.199	654.167	134.854
414.852	574.167	123.332
414.852	587.5	123.332
414.852	600.833	123.332
414.852	627.5	123.332
414.852	640.833	123.332
414.852	654.167	123.332
414.852	667.5	123.332
414.852	680.833	123.332
414.852	734.167	123.332
622.278	1121.25	184.998
632.256	-58.75	167.715
428.157	-145.833	100.288
428.157	-119.167	100.288
428.157	-105.833	100.288
428.157	-92.5	100.288
428.157	-79.1667	100.288
428.157	-39.1667	100.288
428.157	-12.5	100.288
428.157	14.1667	100.288
428.157	54.1667	100.288
434.809	147.5	88.7654
1304.43	562.5	266.296
434.809	280.833	88.7654
434.809	294.167	88.7654
434.809	307.5	88.7654
434.809	320.833	88.7654
434.809	334.167	88.7654
434.809	347.5	88.7654
434.809	374.167	88.7654
434.809	534.167	88.7654
662.192	701.25	115.865
441.461	480.833	77.2432
662.192	741.25	115.865
662.192	921.25	115.865
662.192	941.25	115.865
441.461	640.833	77.2432
441.461	654.167	77.2432
441.461	667.5	77.2432
662.192	1021.25	115.865
662.192	1041.25	115.865
672.171	1081.25	98.5814
672.171	1121.25	98.5814
672.171	1161.25	98.5814
672.171	1181.25	98.5814
672.171	1201.25	98.5814
682.149	-278.75	81.298
682.149	-238.75	81.298
682.149	1.25	81.298
692.128	61.25	64.0146
1384.26	162.5	128.029
692.128	121.25	64.0146
692.128	141.25	64.0146
692.128	161.25	64.0146
692.128	181.25	64.0146
692.128	201.25	64.0146
692.128	221.25	64.0146
461.418	174.167	42.6764
1404.21	522.5	93.4625
1404.21	1602.5	93.4625
474.723	-159.167	19.6319
474.723	-79.1667	19.6319
1424.17	1642.5	58.8958
1424.17	1762.5	58.8958
732.042	381.25	-5.11887
1504	2282.5	-79.3712
761.978	-118.75	-56.969
507.985	27.5	-37.9793
507.985	40.8333	-37.9793
507.985	54.1667	-37.9793
507.985	80.8333	-37.9793
507.985	94.1667	-37.9793
771.956	201.25	-74.2524
771.956	301.25	-74.2524
527.942	-185.833	-72.5461
527.942	-172.5	-72.5461
527.942	-145.833	-72.5461
527.942	-132.5	-72.5461
527.942	-92.5	-72.5461
527.942	-79.1667	-72.5461
527.942	-65.8333	-72.5461
527.942	27.5	-72.5461
801.892	101.25	-126.102
534.595	147.5	-84.0683
801.892	261.25	-126.102
801.892	281.25	-126.102
534.595	200.833	-84.0683
801.892	361.25	-126.102
801.892	401.25	-126.102
801.892	461.25	-126.102
267.297	247.083	-42.0342
320.757	304.5	-50.441
801.892	1221.25	-126.102
811.87	461.25	-143.386
811.87	521.25	-143.386
811.87	761.25	-143.386
541.247	547.5	-95.5906
811.87	841.25	-143.386
821.849	201.25	-160.669
1643.7	1002.5	-321.338
1643.7	1682.5	-321.338
1643.7	1962.5	-321.338
554.552	94.1667	-118.635
554.552	120.833	-118.635
561.204	454.167	-130.157
561.204	480.833	-130.157
1703.57	562.5	-425.039
1703.57	602.5	-425.039
851.785	561.25	-212.519
574.509	-159.167	-153.202
574.509	-145.833	-153.202
430.882	-99.375	-114.901
430.882	-69.375	-114.901
574.509	-79.1667	-153.202
215.441	-24.6875	-57.4507
861.763	521.25	-229.803
1723.53	1642.5	-459.605
861.763	941.25	-229.803
861.763	1121.25	-229.803
581.161	174.167	-164.724
871.742	321.25	-247.086
581.161	227.5	-164.724
1763.44	-437.5	-528.739
881.72	461.25	-264.369
587.814	320.833	-176.246
891.699	421.25	-281.653
891.699	621.25	-281.653
450.839	-129.375	-149.468
450.839	40.625	-149.468
901.677	1061.25	-298.936
901.677	1101.25	-298.936
901.677	1121.25	-298.936
901.677	1141.25	-298.936
901.677	1161.25	-298.936
607.771	-159.167	-210.813
455.828	210.625	-158.11
921.635	1.25	-333.503
921.635	21.25	-333.503
921.635	41.25	-333.503
614.423	227.5	-222.335
614.423	240.833	-222.335
614.423	374.167	-222.335
931.613	481.25	-350.786
1883.18	1162.5	-736.139
1883.18	1762.5	-736.139
1883.18	1962.5	-736.139
634.38	-39.1667	-256.902
634.38	-25.8333	-256.902
475.785	160.625	-192.677
475.785	170.625	-192.677
475.785	180.625	-192.677
380.628	328.5	-154.141
1923.1	-197.5	-805.273
1923.1	-77.5	-805.273
1923.1	2.5	-805.273
1923.1	42.5	-805.273
1923.1	82.5	-805.273
1923.1	122.5	-805.273
961.549	101.25	-402.636
641.033	147.5	-268.424
961.549	241.25	-402.636
274.728	74.6429	-115.039
961.549	281.25	-402.636
641.033	200.833	-268.424
641.033	214.167	-268.424
641.033	227.5	-268.424
641.033	254.167	-268.424
641.033	267.5	-268.424
641.033	280.833	-268.424
641.033	294.167	-268.424
641.033	307.5	-268.424
641.033	320.833	-268.424
641.033	334.167	-268.424
641.033	360.833	-268.424
641.033	387.5	-268.424
641.033	400.833	-268.424
274.728	177.5	-115.039
480.774	320.625	-201.318
480.774	330.625	-201.318
320.516	227.083	-134.212
480.774	350.625	-201.318
384.62	288.5	-161.055
384.62	296.5	-161.055
384.62	304.5	-161.055
480.774	450.625	-201.318
480.774	460.625	-201.318
1963.01	1962.5	-874.406
1963.01	2002.5	-874.406
667.642	400.833	-314.513
667.642	454.167	-314.513
2022.88	562.5	-978.107
2022.88	802.5	-978.107
674.294	774.167	-326.036
674.294	800.833	-326.036
680.947	480.833	-337.558
2042.84	1762.5	-1012.67
2042.84	2202.5	-1012.67
1031.4	-238.75	-523.62
343.8	147.083	-174.54
2082.75	-77.5	-1081.81
2082.75	2.5	-1081.81
2082.75	42.5	-1081.81
2082.75	82.5	-1081.81
2082.75	282.5	-1081.81
1041.38	321.25	-540.903
1041.38	361.25	-540.903
1051.36	221.25	-558.187
1051.36	261.25	-558.187
2102.71	922.5	-1116.37
2102.71	962.5	-1116.37
700.904	814.167	-372.125
428.525	-47.5	-237.101
428.525	312.5	-237.101
2162.58	202.5	-1220.07
440.499	24.5	-257.841
1131.18	261.25	-696.454
2262.37	1442.5	-1392.91
2302.28	-517.5	-1462.04
2342.2	1922.5	-1531.17
1181.08	1061.25	-782.871
2382.11	-397.5	-1600.31
2382.11	-357.5	-1600.31
480.414	256.5	-326.975
2461.94	2.5	-1738.58
2461.94	42.5	-1738.58
1230.97	121.25	-869.288
820.647	774.167	-579.525
827.299	27.5	-591.047
2541.77	322.5	-1876.84
1270.88	181.25	-938.421
1270.88	341.25	-938.421
1270.88	381.25	-938.421
847.256	334.167	-625.614
1280.86	761.25	-955.704
1280.86	801.25	-955.704
853.909	654.167	-637.136
853.909	734.167	-637.136
1290.84	741.25	-972.988
2601.64	-277.5	-1980.54
1300.82	-118.75	-990.271
1300.82	81.25	-990.271
867.213	67.5	-660.181
867.213	107.5	-660.181
873.866	0.833333	-671.703
1310.8	341.25	-1007.55
1310.8	381.25	-1007.55
1310.8	441.25	-1007.55
873.866	334.167	-671.703
1310.8	521.25	-1007.55
873.866	480.833	-671.703
873.866	494.167	-671.703
873.866	507.5	-671.703
660.389	500.625	-512.419
880.518	694.167	-683.225
1320.78	1121.25	-1024.84
887.17	-119.167	-694.748
893.823	-145.833	-706.27
893.823	-132.5	-706.27
893.823	120.833	-706.27
1340.73	201.25	-1059.4
893.823	147.5	-706.27
893.823	280.833	-706.27
900.475	187.5	-717.792
900.475	200.833	-717.792
900.475	520.833	-717.792
1350.71	801.25	-1076.69
900.475	560.833	-717.792
1360.69	781.25	-1093.97
907.128	800.833	-729.314
544.277	488.5	-437.589
913.78	-119.167	-740.837
913.78	-65.8333	-740.837
913.78	-39.1667	-740.837
100.816	-51.0714	186.186
100.816	-45.3571	186.186
100.816	-39.6429	186.186
100.816	-33.9286	186.186
100.816	-28.2143	186.186
88.2142	125.312	162.912
103.667	114.643	181.247
90.7088	110.312	158.591
90.7088	115.312	158.591
80.6301	106.944	140.97
90.7088	125.312	158.591
90.7088	130.312	158.591
90.7088	135.312	158.591
80.6301	124.722	140.97
90.7088	145.312	158.591
106.518	280.357	176.309
106.518	286.071	176.309
93.2034	255.312	154.271
82.8475	231.389	137.129
93.2034	265.312	154.271
82.8475	240.278	137.129
82.8475	244.722	137.129
82.8475	249.167	137.129
82.8475	253.611	137.129
82.8475	258.056	137.129
106.518	348.929	176.309
255.195	120.833	399.866
78.5542	4.25	116.503
112.22	11.7857	166.433
112.22	17.5	166.433
98.1927	20.3125	145.629
87.2824	22.5	129.448
87.2824	26.9444	129.448
87.2824	31.3889	129.448
98.1927	40.3125	145.629
98.1927	45.3125	145.629
98.1927	50.3125	145.629
98.1927	55.3125	145.629
112.22	68.9286	166.433
98.1927	65.3125	145.629
115.071	177.5	161.495
100.687	160.312	141.308
100.687	165.312	141.308
89.4999	151.389	125.607
89.4999	155.833	125.607
89.4999	160.278	125.607
100.687	185.312	141.308
100.687	195.313	141.308
100.687	200.312	141.308
100.687	205.312	141.308
117.922	343.214	156.557
103.182	310.312	136.987
105.677	-69.6875	132.666
105.677	-64.6875	132.666
120.773	-68.2143	151.619
105.677	-54.6875	132.666
105.677	-49.6875	132.666
105.677	-44.6875	132.666
105.677	-39.6875	132.666
123.624	74.6429	146.681
108.171	70.3125	128.346
108.171	75.3125	128.346
108.171	80.3125	128.346
108.171	85.3125	128.346
108.171	90.3125	128.346
108.171	95.3125	128.346
108.171	100.312	128.346
123.624	120.357	146.681
110.666	220.312	124.025
110.666	225.313	124.025
110.666	235.312	124.025
126.475	274.643	141.743
132.177	-22.5	131.866
132.177	-16.7857	131.866
115.655	-9.6875	115.383
115.655	-4.6875	115.383
102.805	26.9444	102.563
157.533	160.417	148.083
